ply
		format ascii 1.0
		element vertex 87039
		property float x
		property float y
		property float z
		property uchar red
		property uchar green
		property uchar blue
		end_header
247.000000 -241.000000 14.563499 1 7 5
248.000000 -241.000000 14.363999 7 13 11
249.000000 -241.000000 14.164499 6 12 10
250.000000 -241.000000 14.563499 6 12 10
255.000000 -241.000000 9.576000 6 12 10
256.000000 -241.000000 9.376500 6 12 10
257.000000 -241.000000 9.775499 4 10 8
258.000000 -241.000000 9.376500 6 12 10
259.000000 -241.000000 9.576000 3 9 7
260.000000 -241.000000 9.974999 7 13 11
268.000000 -241.000000 15.561000 7 13 11
269.000000 -241.000000 15.561000 4 10 8
270.000000 -241.000000 15.760500 7 13 11
271.000000 -241.000000 16.358999 6 12 10
272.000000 -241.000000 15.959999 10 16 12
273.000000 -241.000000 15.162000 9 15 11
274.000000 -241.000000 15.561000 8 14 10
275.000000 -241.000000 15.959999 8 14 10
276.000000 -241.000000 15.561000 9 15 11
277.000000 -241.000000 15.561000 10 16 12
278.000000 -241.000000 15.162000 11 17 13
279.000000 -241.000000 15.561000 11 17 13
280.000000 -241.000000 15.561000 7 13 9
281.000000 -241.000000 15.760500 5 11 7
284.000000 -241.000000 15.361500 7 13 9
285.000000 -241.000000 16.957500 5 11 7
286.000000 -241.000000 16.757999 7 13 9
287.000000 -241.000000 16.757999 5 11 7
288.000000 -241.000000 17.356499 6 12 10
289.000000 -241.000000 17.755499 5 11 9
292.000000 -241.000000 20.747999 3 12 9
293.000000 -241.000000 21.745499 3 12 9
294.000000 -241.000000 21.546000 5 14 11
295.000000 -241.000000 21.546000 7 16 13
296.000000 -241.000000 21.546000 11 17 13
297.000000 -241.000000 21.546000 8 15 8
298.000000 -241.000000 21.745499 11 16 10
299.000000 -241.000000 21.546000 14 20 10
300.000000 -241.000000 21.546000 30 31 23
301.000000 -241.000000 21.745499 28 30 19
302.000000 -241.000000 21.745499 29 29 17
303.000000 -241.000000 21.945000 29 29 17
304.000000 -241.000000 21.945000 29 31 20
305.000000 -241.000000 21.945000 28 30 19
306.000000 -241.000000 21.745499 30 32 21
307.000000 -241.000000 22.144499 27 29 18
308.000000 -241.000000 20.947500 31 33 22
309.000000 -241.000000 20.747999 28 30 19
311.000000 -241.000000 22.144499 30 32 21
312.000000 -241.000000 22.942499 33 33 23
313.000000 -241.000000 24.737999 30 30 20
314.000000 -241.000000 24.338999 34 34 24
315.000000 -241.000000 24.737999 31 31 21
316.000000 -241.000000 24.538500 34 34 24
317.000000 -241.000000 24.937500 32 32 22
318.000000 -241.000000 24.737999 35 35 25
319.000000 -241.000000 24.737999 29 31 20
320.000000 -241.000000 24.937500 16 24 13
321.000000 -241.000000 24.737999 19 27 16
322.000000 -241.000000 24.937500 56 58 47
323.000000 -241.000000 24.937500 63 61 48
324.000000 -241.000000 24.937500 56 54 39
325.000000 -241.000000 24.937500 55 54 34
326.000000 -241.000000 25.136999 66 61 39
327.000000 -241.000000 25.336500 81 74 48
328.000000 -241.000000 25.136999 91 76 53
329.000000 -241.000000 25.336500 94 76 52
330.000000 -241.000000 25.336500 96 80 54
331.000000 -241.000000 25.535999 97 83 56
332.000000 -241.000000 25.735498 93 82 54
333.000000 -241.000000 25.934999 94 83 55
334.000000 -241.000000 26.134499 97 81 56
335.000000 -241.000000 25.934999 93 77 52
336.000000 -241.000000 25.934999 93 77 54
337.000000 -241.000000 25.735498 94 80 54
338.000000 -241.000000 25.934999 93 82 52
339.000000 -241.000000 25.934999 89 78 46
340.000000 -241.000000 25.934999 89 76 44
341.000000 -241.000000 26.134499 95 81 52
342.000000 -241.000000 25.934999 97 81 55
343.000000 -241.000000 25.735498 92 76 51
344.000000 -241.000000 26.134499 97 79 55
345.000000 -241.000000 26.134499 96 79 53
346.000000 -241.000000 26.134499 98 83 54
347.000000 -241.000000 25.934999 97 83 56
348.000000 -241.000000 26.134499 94 82 58
349.000000 -241.000000 25.735498 90 82 63
350.000000 -241.000000 26.134499 78 70 57
351.000000 -241.000000 26.134499 21 21 13
352.000000 -241.000000 26.334000 13 19 15
353.000000 -241.000000 26.334000 13 25 23
354.000000 -241.000000 26.134499 12 24 22
355.000000 -241.000000 25.934999 11 23 21
356.000000 -241.000000 25.136999 12 24 22
357.000000 -241.000000 26.533499 12 24 22
367.000000 -241.000000 25.535999 10 25 22
368.000000 -241.000000 25.336500 14 26 24
369.000000 -241.000000 25.336500 13 25 23
370.000000 -241.000000 25.535999 16 28 26
372.000000 -241.000000 25.535999 14 29 26
373.000000 -241.000000 25.336500 11 26 23
374.000000 -241.000000 25.336500 14 29 26
375.000000 -241.000000 0.000000 14 29 26
376.000000 -241.000000 0.000000 14 29 24
22.000000 -242.000000 15.760500 7 16 13
23.000000 -242.000000 15.361500 3 12 9
24.000000 -242.000000 15.561000 5 14 11
25.000000 -242.000000 14.962500 3 12 9
26.000000 -242.000000 15.561000 7 13 11
27.000000 -242.000000 15.561000 4 10 8
28.000000 -242.000000 15.760500 8 14 12
29.000000 -242.000000 14.962500 4 10 8
30.000000 -242.000000 15.760500 6 12 10
31.000000 -242.000000 15.162000 4 10 8
32.000000 -242.000000 14.962500 6 12 10
33.000000 -242.000000 15.162000 6 12 10
45.000000 -242.000000 14.962500 5 11 9
46.000000 -242.000000 14.763000 5 11 9
47.000000 -242.000000 14.763000 6 12 10
48.000000 -242.000000 14.962500 6 12 10
49.000000 -242.000000 14.563499 3 9 7
50.000000 -242.000000 14.763000 8 14 12
51.000000 -242.000000 14.563499 8 14 12
52.000000 -242.000000 14.563499 15 21 17
53.000000 -242.000000 14.563499 18 24 20
54.000000 -242.000000 14.563499 26 32 28
55.000000 -242.000000 14.563499 25 31 27
56.000000 -242.000000 14.563499 15 21 17
57.000000 -242.000000 14.763000 11 17 13
58.000000 -242.000000 14.563499 11 17 13
59.000000 -242.000000 14.763000 7 13 9
60.000000 -242.000000 14.563499 9 15 11
61.000000 -242.000000 14.763000 4 10 6
62.000000 -242.000000 14.763000 7 13 11
63.000000 -242.000000 14.962500 8 14 12
64.000000 -242.000000 15.361500 6 12 12
65.000000 -242.000000 16.358999 6 12 12
66.000000 -242.000000 16.957500 6 12 12
67.000000 -242.000000 17.356499 6 12 12
68.000000 -242.000000 17.955000 6 12 10
69.000000 -242.000000 18.553499 6 12 10
70.000000 -242.000000 18.753000 6 12 10
71.000000 -242.000000 18.952499 6 12 10
72.000000 -242.000000 19.152000 6 12 10
73.000000 -242.000000 19.351500 7 13 11
74.000000 -242.000000 19.351500 9 15 13
75.000000 -242.000000 19.351500 13 19 17
76.000000 -242.000000 19.550999 15 21 19
77.000000 -242.000000 19.550999 11 17 15
78.000000 -242.000000 19.750500 8 14 12
79.000000 -242.000000 19.750500 12 18 16
82.000000 -242.000000 32.518497 6 15 12
83.000000 -242.000000 32.518497 5 14 11
84.000000 -242.000000 32.119499 6 15 12
85.000000 -242.000000 32.119499 8 14 12
86.000000 -242.000000 32.119499 6 12 8
87.000000 -242.000000 31.919998 9 14 8
88.000000 -242.000000 31.919998 8 10 5
89.000000 -242.000000 32.119499 19 20 12
90.000000 -242.000000 32.119499 41 41 31
91.000000 -242.000000 32.319000 55 53 41
92.000000 -242.000000 32.119499 66 60 48
93.000000 -242.000000 32.319000 59 51 38
94.000000 -242.000000 32.119499 58 50 37
95.000000 -242.000000 31.919998 56 49 33
98.000000 -242.000000 15.162000 58 49 34
99.000000 -242.000000 15.162000 57 50 32
100.000000 -242.000000 15.162000 58 49 34
101.000000 -242.000000 15.162000 58 51 33
102.000000 -242.000000 14.962500 59 50 35
103.000000 -242.000000 14.962500 57 50 32
104.000000 -242.000000 14.962500 60 51 36
105.000000 -242.000000 14.962500 57 50 32
106.000000 -242.000000 14.763000 59 50 35
107.000000 -242.000000 14.962500 54 47 29
108.000000 -242.000000 14.962500 58 49 34
109.000000 -242.000000 14.763000 53 46 28
110.000000 -242.000000 14.962500 55 46 31
111.000000 -242.000000 13.964999 52 45 27
112.000000 -242.000000 13.765500 57 50 32
121.000000 -242.000000 38.104500 55 49 33
122.000000 -242.000000 38.702999 53 47 33
123.000000 -242.000000 38.702999 54 51 36
124.000000 -242.000000 38.503498 51 45 33
126.000000 -242.000000 37.306499 57 53 41
127.000000 -242.000000 37.506001 71 69 56
128.000000 -242.000000 37.306499 71 69 54
133.000000 -242.000000 34.712997 203 200 191
134.000000 -242.000000 34.513500 237 234 225
135.000000 -242.000000 34.313999 234 232 220
136.000000 -242.000000 33.715500 236 234 219
137.000000 -242.000000 33.915001 237 234 217
138.000000 -242.000000 34.114498 238 235 218
139.000000 -242.000000 34.114498 239 236 219
140.000000 -242.000000 34.513500 240 237 220
141.000000 -242.000000 34.313999 242 239 224
142.000000 -242.000000 33.515999 243 239 227
143.000000 -242.000000 33.117001 246 240 228
144.000000 -242.000000 32.917500 249 241 230
145.000000 -242.000000 33.117001 249 241 230
146.000000 -242.000000 33.316498 250 241 232
147.000000 -242.000000 33.515999 251 244 234
148.000000 -242.000000 33.515999 252 245 237
149.000000 -242.000000 33.515999 251 247 238
150.000000 -242.000000 33.316498 252 247 241
151.000000 -242.000000 33.316498 252 249 244
152.000000 -242.000000 33.117001 253 250 245
153.000000 -242.000000 32.119499 253 250 245
154.000000 -242.000000 32.319000 254 251 246
155.000000 -242.000000 31.919998 253 252 247
156.000000 -242.000000 32.717999 255 252 245
157.000000 -242.000000 34.313999 255 253 246
159.000000 -242.000000 33.117001 254 254 244
160.000000 -242.000000 33.316498 253 254 246
161.000000 -242.000000 34.114498 254 255 247
162.000000 -242.000000 33.715500 252 252 242
163.000000 -242.000000 33.316498 255 255 243
164.000000 -242.000000 33.117001 255 254 242
165.000000 -242.000000 33.117001 255 252 239
166.000000 -242.000000 32.917500 255 248 234
167.000000 -242.000000 32.917500 208 195 179
168.000000 -242.000000 33.117001 197 181 165
169.000000 -242.000000 32.917500 198 181 165
170.000000 -242.000000 32.917500 201 184 166
171.000000 -242.000000 32.717999 204 187 169
172.000000 -242.000000 32.717999 201 184 164
173.000000 -242.000000 32.717999 201 184 164
174.000000 -242.000000 32.717999 204 187 167
175.000000 -242.000000 32.119499 204 187 167
176.000000 -242.000000 32.717999 197 180 160
177.000000 -242.000000 32.717999 194 177 157
178.000000 -242.000000 32.717999 196 178 158
179.000000 -242.000000 32.717999 189 171 151
180.000000 -242.000000 32.518497 189 168 151
181.000000 -242.000000 32.319000 183 164 149
182.000000 -242.000000 32.319000 158 139 124
183.000000 -242.000000 32.119499 44 26 12
184.000000 -242.000000 32.119499 49 36 20
185.000000 -242.000000 32.119499 48 36 20
186.000000 -242.000000 32.319000 48 39 24
187.000000 -242.000000 31.919998 44 37 19
190.000000 -242.000000 24.937500 45 36 19
191.000000 -242.000000 24.737999 42 35 17
192.000000 -242.000000 25.136999 41 35 19
193.000000 -242.000000 26.134499 34 31 16
194.000000 -242.000000 25.934999 39 33 19
195.000000 -242.000000 26.334000 36 33 18
196.000000 -242.000000 26.134499 40 37 22
197.000000 -242.000000 25.934999 39 35 23
198.000000 -242.000000 25.934999 46 42 30
205.000000 -242.000000 33.316498 42 40 25
212.000000 -242.000000 13.765500 41 41 31
213.000000 -242.000000 14.363999 39 39 31
214.000000 -242.000000 14.563499 38 39 31
215.000000 -242.000000 14.363999 39 40 32
216.000000 -242.000000 14.563499 36 37 31
217.000000 -242.000000 14.563499 34 35 27
218.000000 -242.000000 14.363999 36 37 29
219.000000 -242.000000 14.563499 33 34 26
220.000000 -242.000000 14.763000 38 39 31
221.000000 -242.000000 14.763000 37 39 28
222.000000 -242.000000 14.763000 39 41 30
223.000000 -242.000000 14.763000 37 39 26
224.000000 -242.000000 14.962500 37 39 28
225.000000 -242.000000 14.962500 36 37 29
226.000000 -242.000000 14.763000 35 38 31
227.000000 -242.000000 14.962500 37 40 33
228.000000 -242.000000 14.962500 38 40 35
229.000000 -242.000000 14.962500 33 35 30
230.000000 -242.000000 15.162000 22 24 19
231.000000 -242.000000 15.162000 13 16 9
232.000000 -242.000000 15.162000 24 29 22
233.000000 -242.000000 15.162000 24 29 22
234.000000 -242.000000 15.162000 19 24 17
235.000000 -242.000000 15.162000 11 16 10
236.000000 -242.000000 15.162000 8 13 9
237.000000 -242.000000 15.162000 7 11 10
238.000000 -242.000000 15.162000 7 11 12
239.000000 -242.000000 14.962500 7 11 12
240.000000 -242.000000 14.962500 8 14 12
241.000000 -242.000000 14.962500 6 12 10
242.000000 -242.000000 14.962500 6 12 10
243.000000 -242.000000 14.962500 13 19 17
244.000000 -242.000000 14.962500 23 29 27
245.000000 -242.000000 14.763000 34 40 38
246.000000 -242.000000 14.563499 12 18 16
247.000000 -242.000000 14.563499 3 9 7
248.000000 -242.000000 14.363999 6 12 10
249.000000 -242.000000 13.765500 6 12 10
250.000000 -242.000000 14.363999 6 12 10
255.000000 -242.000000 9.775499 6 12 10
256.000000 -242.000000 9.576000 5 11 9
257.000000 -242.000000 9.974999 3 9 7
258.000000 -242.000000 9.576000 5 11 9
268.000000 -242.000000 15.561000 7 13 11
269.000000 -242.000000 15.361500 5 11 9
270.000000 -242.000000 15.561000 8 14 12
271.000000 -242.000000 15.959999 8 14 12
272.000000 -242.000000 15.760500 8 14 10
273.000000 -242.000000 15.162000 7 13 9
274.000000 -242.000000 15.361500 5 11 7
275.000000 -242.000000 15.760500 5 11 7
276.000000 -242.000000 15.561000 6 12 8
277.000000 -242.000000 15.561000 8 14 10
278.000000 -242.000000 15.162000 9 15 11
279.000000 -242.000000 15.561000 10 16 12
280.000000 -242.000000 15.561000 9 15 11
281.000000 -242.000000 15.760500 7 13 9
283.000000 -242.000000 14.563499 4 10 6
284.000000 -242.000000 15.760500 8 14 10
285.000000 -242.000000 17.356499 5 11 7
286.000000 -242.000000 16.957500 7 13 9
287.000000 -242.000000 16.957500 5 11 7
288.000000 -242.000000 17.556000 6 12 10
289.000000 -242.000000 17.955000 5 11 9
291.000000 -242.000000 20.149500 5 11 9
292.000000 -242.000000 20.747999 3 12 9
293.000000 -242.000000 21.745499 3 12 9
294.000000 -242.000000 21.546000 4 13 10
295.000000 -242.000000 21.546000 7 16 13
296.000000 -242.000000 21.546000 10 16 12
297.000000 -242.000000 21.546000 7 14 7
298.000000 -242.000000 21.745499 10 15 9
299.000000 -242.000000 21.546000 14 20 10
300.000000 -242.000000 21.546000 29 30 22
301.000000 -242.000000 21.745499 28 30 19
302.000000 -242.000000 21.745499 30 30 18
303.000000 -242.000000 21.945000 30 30 18
304.000000 -242.000000 21.945000 30 30 18
305.000000 -242.000000 21.945000 29 29 17
306.000000 -242.000000 21.745499 31 31 19
307.000000 -242.000000 22.144499 28 28 16
308.000000 -242.000000 20.947500 32 32 20
309.000000 -242.000000 20.747999 29 29 17
311.000000 -242.000000 21.945000 31 31 19
312.000000 -242.000000 23.142000 32 32 20
313.000000 -242.000000 25.735498 30 30 18
314.000000 -242.000000 24.338999 33 33 21
315.000000 -242.000000 24.737999 30 30 18
316.000000 -242.000000 24.538500 35 33 21
317.000000 -242.000000 24.937500 34 32 20
318.000000 -242.000000 24.737999 37 35 23
319.000000 -242.000000 24.737999 30 32 21
320.000000 -242.000000 24.937500 14 22 11
321.000000 -242.000000 24.937500 17 25 14
322.000000 -242.000000 24.937500 55 57 46
323.000000 -242.000000 24.937500 62 60 47
324.000000 -242.000000 24.937500 56 54 39
325.000000 -242.000000 24.937500 55 54 34
326.000000 -242.000000 25.136999 65 60 38
327.000000 -242.000000 25.336500 81 74 48
328.000000 -242.000000 25.136999 91 76 53
329.000000 -242.000000 25.336500 94 76 52
330.000000 -242.000000 25.336500 96 80 54
331.000000 -242.000000 25.535999 97 83 56
332.000000 -242.000000 25.735498 93 81 55
333.000000 -242.000000 26.134499 94 82 56
334.000000 -242.000000 26.334000 97 81 56
335.000000 -242.000000 25.934999 93 77 52
336.000000 -242.000000 25.934999 93 77 54
337.000000 -242.000000 25.934999 94 80 54
338.000000 -242.000000 25.934999 92 81 51
339.000000 -242.000000 25.934999 89 78 46
340.000000 -242.000000 26.134499 90 77 45
341.000000 -242.000000 26.134499 95 81 52
342.000000 -242.000000 25.934999 98 82 56
343.000000 -242.000000 25.735498 93 77 52
344.000000 -242.000000 26.134499 96 78 54
345.000000 -242.000000 26.134499 95 78 52
346.000000 -242.000000 26.134499 98 83 54
347.000000 -242.000000 25.934999 97 83 54
348.000000 -242.000000 26.134499 95 83 57
349.000000 -242.000000 25.735498 91 83 62
350.000000 -242.000000 26.334000 78 70 57
351.000000 -242.000000 26.134499 22 22 14
352.000000 -242.000000 26.334000 12 18 14
353.000000 -242.000000 26.334000 12 24 22
354.000000 -242.000000 26.134499 11 23 21
355.000000 -242.000000 26.134499 10 22 20
356.000000 -242.000000 25.136999 11 23 21
357.000000 -242.000000 26.733000 11 23 21
360.000000 -242.000000 0.000000 9 24 21
368.000000 -242.000000 25.336500 12 24 24
369.000000 -242.000000 25.336500 11 23 23
370.000000 -242.000000 25.735498 14 26 24
371.000000 -242.000000 25.735498 10 22 20
372.000000 -242.000000 25.535999 12 27 24
373.000000 -242.000000 25.535999 8 23 20
374.000000 -242.000000 25.336500 11 26 23
375.000000 -242.000000 0.000000 11 26 23
376.000000 -242.000000 0.000000 12 27 24
22.000000 -243.000000 15.959999 7 16 13
23.000000 -243.000000 15.561000 3 12 9
24.000000 -243.000000 15.760500 5 14 11
25.000000 -243.000000 15.162000 3 12 9
26.000000 -243.000000 15.760500 7 13 11
27.000000 -243.000000 15.561000 4 10 8
28.000000 -243.000000 15.760500 7 13 11
29.000000 -243.000000 15.162000 4 10 8
30.000000 -243.000000 15.959999 6 12 10
31.000000 -243.000000 15.361500 4 10 8
32.000000 -243.000000 15.162000 6 12 10
33.000000 -243.000000 15.361500 6 12 10
44.000000 -243.000000 14.763000 5 11 9
45.000000 -243.000000 15.361500 5 11 9
46.000000 -243.000000 15.162000 5 11 9
47.000000 -243.000000 15.162000 6 12 10
48.000000 -243.000000 14.962500 4 10 8
49.000000 -243.000000 14.563499 3 9 7
50.000000 -243.000000 14.763000 9 15 13
51.000000 -243.000000 14.563499 9 15 13
52.000000 -243.000000 14.563499 15 21 17
53.000000 -243.000000 14.363999 14 20 16
54.000000 -243.000000 14.563499 15 21 17
55.000000 -243.000000 14.563499 9 15 11
56.000000 -243.000000 14.563499 6 12 8
57.000000 -243.000000 14.563499 5 11 7
58.000000 -243.000000 14.563499 8 14 10
59.000000 -243.000000 14.763000 5 11 7
60.000000 -243.000000 14.563499 8 14 10
61.000000 -243.000000 14.563499 4 10 6
62.000000 -243.000000 14.763000 6 12 10
63.000000 -243.000000 14.763000 4 10 8
64.000000 -243.000000 15.361500 6 12 12
65.000000 -243.000000 16.558500 6 12 12
66.000000 -243.000000 17.157000 6 12 12
67.000000 -243.000000 17.755499 6 12 12
68.000000 -243.000000 18.354000 6 12 10
69.000000 -243.000000 18.753000 6 12 10
70.000000 -243.000000 19.152000 6 12 10
71.000000 -243.000000 19.152000 6 12 10
72.000000 -243.000000 19.351500 7 13 11
73.000000 -243.000000 19.550999 7 13 11
74.000000 -243.000000 19.550999 10 16 14
75.000000 -243.000000 19.550999 14 20 18
76.000000 -243.000000 19.550999 14 20 18
77.000000 -243.000000 19.750500 10 16 14
78.000000 -243.000000 19.750500 9 15 13
82.000000 -243.000000 32.717999 9 18 15
83.000000 -243.000000 32.518497 8 14 10
84.000000 -243.000000 32.319000 9 15 11
85.000000 -243.000000 32.119499 8 13 7
86.000000 -243.000000 32.119499 7 10 3
87.000000 -243.000000 32.119499 11 12 4
88.000000 -243.000000 32.119499 28 28 18
89.000000 -243.000000 32.319000 47 45 33
90.000000 -243.000000 32.319000 62 58 46
91.000000 -243.000000 32.518497 58 52 40
92.000000 -243.000000 32.319000 60 52 39
93.000000 -243.000000 32.518497 62 53 38
94.000000 -243.000000 32.319000 62 53 38
95.000000 -243.000000 32.119499 53 44 27
96.000000 -243.000000 32.518497 59 50 33
98.000000 -243.000000 15.162000 57 45 29
99.000000 -243.000000 15.162000 56 48 29
100.000000 -243.000000 15.162000 61 49 33
101.000000 -243.000000 15.162000 60 52 33
102.000000 -243.000000 14.962500 61 49 33
103.000000 -243.000000 15.162000 57 49 30
104.000000 -243.000000 14.962500 62 50 34
105.000000 -243.000000 14.962500 58 50 31
106.000000 -243.000000 14.763000 62 50 34
107.000000 -243.000000 14.962500 56 48 29
108.000000 -243.000000 14.763000 61 49 33
109.000000 -243.000000 14.962500 56 48 29
110.000000 -243.000000 14.962500 60 48 32
111.000000 -243.000000 14.164499 56 47 30
122.000000 -243.000000 38.902500 54 47 31
123.000000 -243.000000 38.702999 54 48 34
124.000000 -243.000000 38.503498 55 47 34
127.000000 -243.000000 37.306499 66 62 50
131.000000 -243.000000 35.910000 71 68 59
132.000000 -243.000000 33.915001 86 83 76
133.000000 -243.000000 34.114498 213 210 203
134.000000 -243.000000 34.114498 240 237 228
135.000000 -243.000000 34.114498 232 230 218
136.000000 -243.000000 33.715500 238 236 223
137.000000 -243.000000 33.715500 238 236 221
138.000000 -243.000000 33.915001 238 236 221
139.000000 -243.000000 34.114498 237 238 222
140.000000 -243.000000 34.313999 238 239 223
141.000000 -243.000000 34.313999 239 240 226
142.000000 -243.000000 33.515999 240 240 228
143.000000 -243.000000 33.117001 242 240 228
144.000000 -243.000000 32.917500 246 239 229
145.000000 -243.000000 33.117001 247 239 228
146.000000 -243.000000 33.117001 248 239 230
147.000000 -243.000000 33.316498 250 243 233
148.000000 -243.000000 33.316498 252 245 237
149.000000 -243.000000 33.316498 251 246 240
150.000000 -243.000000 33.117001 253 248 244
151.000000 -243.000000 33.316498 254 249 245
152.000000 -243.000000 33.117001 254 249 245
153.000000 -243.000000 32.518497 253 250 245
154.000000 -243.000000 32.717999 254 251 246
155.000000 -243.000000 32.319000 255 252 247
156.000000 -243.000000 32.917500 255 252 245
157.000000 -243.000000 33.316498 255 252 245
158.000000 -243.000000 33.515999 255 252 243
159.000000 -243.000000 33.117001 255 252 245
160.000000 -243.000000 33.316498 252 253 247
161.000000 -243.000000 34.114498 251 253 248
162.000000 -243.000000 33.715500 250 251 245
163.000000 -243.000000 33.515999 254 254 246
164.000000 -243.000000 33.316498 255 253 244
165.000000 -243.000000 33.316498 255 251 239
166.000000 -243.000000 33.117001 255 250 238
167.000000 -243.000000 33.316498 220 208 194
168.000000 -243.000000 33.316498 198 185 169
169.000000 -243.000000 33.117001 200 184 168
170.000000 -243.000000 33.117001 204 187 169
171.000000 -243.000000 33.117001 205 188 168
172.000000 -243.000000 32.917500 203 186 166
173.000000 -243.000000 32.917500 198 183 162
174.000000 -243.000000 32.917500 196 181 160
175.000000 -243.000000 32.518497 193 178 155
176.000000 -243.000000 32.917500 200 184 161
177.000000 -243.000000 32.917500 193 177 154
178.000000 -243.000000 32.917500 194 176 156
179.000000 -243.000000 32.917500 186 168 148
180.000000 -243.000000 32.717999 186 165 148
181.000000 -243.000000 32.518497 183 164 147
182.000000 -243.000000 32.319000 168 149 135
183.000000 -243.000000 32.319000 45 29 14
184.000000 -243.000000 32.319000 33 19 6
185.000000 -243.000000 32.119499 38 29 14
186.000000 -243.000000 32.319000 40 33 17
187.000000 -243.000000 32.119499 37 31 15
188.000000 -243.000000 31.720499 39 33 17
189.000000 -243.000000 32.119499 40 34 18
191.000000 -243.000000 24.937500 36 29 13
192.000000 -243.000000 25.336500 39 32 14
193.000000 -243.000000 26.134499 40 32 13
194.000000 -243.000000 26.134499 49 41 22
196.000000 -243.000000 26.334000 56 47 30
197.000000 -243.000000 26.334000 54 45 28
203.000000 -243.000000 32.917500 58 51 35
204.000000 -243.000000 33.316498 58 51 33
205.000000 -243.000000 33.316498 57 50 32
216.000000 -243.000000 14.763000 36 37 29
217.000000 -243.000000 14.763000 34 37 28
218.000000 -243.000000 14.763000 37 38 30
219.000000 -243.000000 14.962500 34 35 27
220.000000 -243.000000 15.162000 41 43 32
221.000000 -243.000000 14.962500 40 42 31
222.000000 -243.000000 15.162000 42 44 31
223.000000 -243.000000 15.162000 38 40 27
224.000000 -243.000000 15.162000 36 38 27
225.000000 -243.000000 15.162000 32 35 24
226.000000 -243.000000 15.162000 31 34 25
227.000000 -243.000000 15.162000 33 36 29
228.000000 -243.000000 15.162000 35 37 32
229.000000 -243.000000 14.962500 35 38 31
230.000000 -243.000000 15.162000 31 34 27
231.000000 -243.000000 15.162000 27 30 21
232.000000 -243.000000 15.162000 34 40 30
233.000000 -243.000000 15.162000 30 36 26
234.000000 -243.000000 15.162000 25 31 21
235.000000 -243.000000 15.162000 17 22 15
236.000000 -243.000000 15.162000 8 13 7
237.000000 -243.000000 15.162000 7 12 8
238.000000 -243.000000 15.162000 8 12 11
239.000000 -243.000000 14.962500 5 9 8
240.000000 -243.000000 14.962500 4 10 8
241.000000 -243.000000 14.962500 7 13 11
242.000000 -243.000000 14.763000 10 16 14
243.000000 -243.000000 14.962500 11 17 15
244.000000 -243.000000 14.962500 11 17 15
245.000000 -243.000000 14.763000 13 19 17
246.000000 -243.000000 14.563499 3 9 7
247.000000 -243.000000 14.563499 5 11 9
248.000000 -243.000000 14.164499 6 12 10
249.000000 -243.000000 13.765500 6 12 10
250.000000 -243.000000 14.363999 6 12 10
251.000000 -243.000000 14.563499 6 12 10
256.000000 -243.000000 9.576000 6 12 10
257.000000 -243.000000 9.974999 4 10 8
258.000000 -243.000000 9.576000 6 12 10
269.000000 -243.000000 15.361500 5 11 9
270.000000 -243.000000 15.561000 9 15 13
271.000000 -243.000000 15.959999 9 15 13
272.000000 -243.000000 15.760500 8 14 10
273.000000 -243.000000 15.361500 6 12 8
274.000000 -243.000000 15.361500 4 10 6
275.000000 -243.000000 15.760500 3 9 5
276.000000 -243.000000 15.561000 3 9 5
277.000000 -243.000000 15.760500 4 10 6
278.000000 -243.000000 15.162000 5 11 7
279.000000 -243.000000 15.760500 6 12 8
280.000000 -243.000000 15.760500 9 15 11
281.000000 -243.000000 15.959999 7 13 9
282.000000 -243.000000 15.361500 9 15 11
283.000000 -243.000000 15.361500 5 11 7
284.000000 -243.000000 16.159500 8 14 10
285.000000 -243.000000 17.356499 5 11 7
286.000000 -243.000000 17.157000 7 13 9
287.000000 -243.000000 17.157000 6 12 8
288.000000 -243.000000 17.755499 5 11 9
289.000000 -243.000000 18.154499 4 10 8
291.000000 -243.000000 20.149500 4 10 8
292.000000 -243.000000 20.747999 2 11 8
293.000000 -243.000000 21.745499 1 10 7
294.000000 -243.000000 21.546000 3 12 9
295.000000 -243.000000 21.546000 5 14 11
296.000000 -243.000000 21.546000 10 16 12
297.000000 -243.000000 21.745499 7 14 7
298.000000 -243.000000 21.745499 10 15 9
299.000000 -243.000000 21.745499 14 20 10
300.000000 -243.000000 21.546000 29 30 22
301.000000 -243.000000 21.745499 28 30 19
302.000000 -243.000000 21.745499 29 29 17
303.000000 -243.000000 21.945000 29 29 17
304.000000 -243.000000 21.945000 30 30 18
305.000000 -243.000000 21.945000 29 29 17
306.000000 -243.000000 21.945000 31 31 19
307.000000 -243.000000 22.144499 28 28 16
308.000000 -243.000000 20.947500 32 32 20
309.000000 -243.000000 20.747999 29 29 17
311.000000 -243.000000 21.945000 30 30 18
312.000000 -243.000000 23.142000 32 32 20
313.000000 -243.000000 25.934999 30 30 18
314.000000 -243.000000 24.538500 33 33 21
315.000000 -243.000000 24.737999 29 29 17
316.000000 -243.000000 24.538500 34 32 20
317.000000 -243.000000 25.136999 33 31 19
318.000000 -243.000000 24.937500 36 34 22
319.000000 -243.000000 24.737999 29 31 20
320.000000 -243.000000 24.937500 16 24 13
321.000000 -243.000000 24.937500 17 25 14
322.000000 -243.000000 24.937500 54 56 45
323.000000 -243.000000 24.937500 60 58 45
324.000000 -243.000000 24.937500 54 52 37
325.000000 -243.000000 24.937500 53 52 32
326.000000 -243.000000 25.136999 64 59 37
327.000000 -243.000000 25.336500 81 74 48
328.000000 -243.000000 25.136999 92 77 54
329.000000 -243.000000 25.336500 95 77 53
330.000000 -243.000000 25.336500 97 81 55
331.000000 -243.000000 25.535999 97 83 56
332.000000 -243.000000 25.735498 94 82 56
333.000000 -243.000000 26.134499 94 82 56
334.000000 -243.000000 26.334000 97 81 56
335.000000 -243.000000 25.934999 93 77 52
336.000000 -243.000000 25.934999 92 76 53
337.000000 -243.000000 25.934999 92 78 52
338.000000 -243.000000 25.934999 91 80 50
339.000000 -243.000000 26.134499 88 77 45
340.000000 -243.000000 26.134499 89 76 44
341.000000 -243.000000 26.134499 94 80 51
342.000000 -243.000000 25.934999 97 81 55
343.000000 -243.000000 25.735498 93 77 52
344.000000 -243.000000 26.334000 96 78 54
345.000000 -243.000000 26.134499 95 78 52
346.000000 -243.000000 26.334000 97 82 53
347.000000 -243.000000 25.934999 97 83 54
348.000000 -243.000000 26.134499 95 83 57
349.000000 -243.000000 25.934999 92 84 63
350.000000 -243.000000 26.334000 79 71 58
351.000000 -243.000000 26.334000 25 22 15
352.000000 -243.000000 26.533499 11 17 13
353.000000 -243.000000 26.533499 11 23 21
354.000000 -243.000000 26.334000 11 23 21
355.000000 -243.000000 26.134499 9 21 19
356.000000 -243.000000 25.336500 11 23 21
357.000000 -243.000000 26.733000 11 23 21
368.000000 -243.000000 25.336500 10 22 22
369.000000 -243.000000 25.336500 8 20 20
370.000000 -243.000000 25.535999 11 23 21
371.000000 -243.000000 25.535999 8 20 18
372.000000 -243.000000 25.535999 9 24 21
373.000000 -243.000000 25.535999 6 21 18
374.000000 -243.000000 25.336500 8 23 20
375.000000 -243.000000 0.000000 7 22 19
376.000000 -243.000000 0.000000 9 24 21
22.000000 -244.000000 15.959999 8 17 14
23.000000 -244.000000 15.561000 4 13 10
24.000000 -244.000000 15.760500 5 14 11
25.000000 -244.000000 15.162000 3 12 9
26.000000 -244.000000 15.760500 7 13 11
27.000000 -244.000000 15.561000 4 10 8
28.000000 -244.000000 15.760500 7 13 11
29.000000 -244.000000 15.361500 4 10 8
30.000000 -244.000000 15.959999 6 12 10
31.000000 -244.000000 15.561000 4 10 8
32.000000 -244.000000 15.361500 6 12 10
33.000000 -244.000000 15.561000 6 12 10
39.000000 -244.000000 16.757999 5 11 9
40.000000 -244.000000 15.959999 7 13 11
41.000000 -244.000000 15.959999 6 12 10
42.000000 -244.000000 15.760500 6 12 10
43.000000 -244.000000 15.760500 6 12 10
44.000000 -244.000000 15.162000 6 12 10
45.000000 -244.000000 15.561000 6 12 10
46.000000 -244.000000 15.162000 6 12 10
47.000000 -244.000000 15.162000 6 12 10
48.000000 -244.000000 14.962500 10 16 14
49.000000 -244.000000 14.763000 6 12 10
50.000000 -244.000000 14.763000 9 15 11
51.000000 -244.000000 14.563499 7 13 9
52.000000 -244.000000 14.563499 12 18 14
53.000000 -244.000000 14.563499 11 17 13
54.000000 -244.000000 14.563499 12 18 14
55.000000 -244.000000 14.563499 5 11 7
56.000000 -244.000000 14.563499 10 16 12
57.000000 -244.000000 14.763000 8 14 10
58.000000 -244.000000 14.763000 9 15 11
59.000000 -244.000000 14.763000 3 9 5
60.000000 -244.000000 14.563499 6 12 10
61.000000 -244.000000 14.563499 4 10 8
62.000000 -244.000000 14.763000 6 12 10
63.000000 -244.000000 14.763000 4 10 8
64.000000 -244.000000 15.561000 6 12 10
65.000000 -244.000000 16.957500 6 12 10
66.000000 -244.000000 17.556000 6 12 10
67.000000 -244.000000 18.154499 6 12 10
68.000000 -244.000000 18.553499 6 12 10
69.000000 -244.000000 19.152000 6 12 10
70.000000 -244.000000 19.351500 4 13 12
71.000000 -244.000000 19.351500 4 13 12
72.000000 -244.000000 19.550999 6 15 14
73.000000 -244.000000 19.750500 6 15 14
74.000000 -244.000000 19.750500 9 18 17
75.000000 -244.000000 19.750500 13 22 21
76.000000 -244.000000 19.750500 11 20 19
77.000000 -244.000000 19.750500 7 16 15
81.000000 -244.000000 32.917500 8 17 14
82.000000 -244.000000 32.717999 7 13 9
83.000000 -244.000000 32.518497 7 13 9
84.000000 -244.000000 32.319000 12 15 8
85.000000 -244.000000 32.319000 9 10 2
86.000000 -244.000000 32.319000 13 13 3
87.000000 -244.000000 32.119499 27 25 13
88.000000 -244.000000 32.319000 60 56 44
89.000000 -244.000000 32.518497 60 54 40
90.000000 -244.000000 32.518497 62 55 39
91.000000 -244.000000 32.717999 58 51 35
92.000000 -244.000000 32.518497 64 55 38
93.000000 -244.000000 32.717999 66 54 38
94.000000 -244.000000 32.518497 68 56 40
95.000000 -244.000000 32.319000 65 54 36
96.000000 -244.000000 32.717999 66 55 37
99.000000 -244.000000 15.162000 63 52 32
100.000000 -244.000000 15.361500 65 52 35
101.000000 -244.000000 15.162000 64 53 33
102.000000 -244.000000 14.962500 64 51 34
103.000000 -244.000000 15.162000 61 50 30
104.000000 -244.000000 14.962500 64 51 34
105.000000 -244.000000 14.962500 62 51 31
106.000000 -244.000000 14.763000 65 52 35
107.000000 -244.000000 14.962500 61 50 30
108.000000 -244.000000 14.962500 66 53 36
109.000000 -244.000000 14.962500 62 51 31
110.000000 -244.000000 15.162000 66 53 36
121.000000 -244.000000 37.705498 59 50 33
122.000000 -244.000000 38.702999 59 50 33
123.000000 -244.000000 38.304001 57 50 34
124.000000 -244.000000 38.104500 61 51 39
131.000000 -244.000000 34.712997 80 76 67
133.000000 -244.000000 33.715500 215 212 205
134.000000 -244.000000 33.715500 225 225 215
135.000000 -244.000000 33.715500 224 224 212
136.000000 -244.000000 33.316498 238 239 225
137.000000 -244.000000 33.515999 239 240 224
138.000000 -244.000000 33.715500 239 240 224
139.000000 -244.000000 34.114498 239 242 225
140.000000 -244.000000 34.313999 241 243 229
141.000000 -244.000000 34.114498 241 243 230
142.000000 -244.000000 33.515999 241 243 230
143.000000 -244.000000 33.117001 242 242 230
144.000000 -244.000000 32.917500 244 240 229
145.000000 -244.000000 33.117001 245 238 228
146.000000 -244.000000 33.117001 247 240 232
147.000000 -244.000000 33.316498 248 244 235
148.000000 -244.000000 33.316498 249 244 238
149.000000 -244.000000 33.515999 249 246 239
150.000000 -244.000000 33.117001 251 248 243
151.000000 -244.000000 33.515999 252 249 244
152.000000 -244.000000 33.316498 252 248 245
153.000000 -244.000000 32.717999 251 250 246
154.000000 -244.000000 32.717999 251 250 245
155.000000 -244.000000 32.717999 252 251 246
156.000000 -244.000000 33.117001 252 252 244
157.000000 -244.000000 33.316498 252 252 244
158.000000 -244.000000 33.915001 252 252 244
159.000000 -244.000000 33.515999 252 251 246
160.000000 -244.000000 33.515999 250 252 249
161.000000 -244.000000 34.313999 250 252 251
162.000000 -244.000000 34.114498 251 251 249
163.000000 -244.000000 33.915001 253 252 247
164.000000 -244.000000 33.715500 255 251 245
165.000000 -244.000000 33.715500 255 249 239
166.000000 -244.000000 33.515999 255 252 242
167.000000 -244.000000 33.715500 232 220 206
168.000000 -244.000000 33.715500 203 190 174
169.000000 -244.000000 33.515999 201 188 171
170.000000 -244.000000 33.515999 199 184 165
171.000000 -244.000000 33.515999 196 181 160
172.000000 -244.000000 33.515999 196 181 160
173.000000 -244.000000 33.515999 195 180 157
174.000000 -244.000000 33.316498 193 178 155
175.000000 -244.000000 33.316498 193 178 155
176.000000 -244.000000 33.117001 201 185 162
177.000000 -244.000000 33.117001 195 177 153
178.000000 -244.000000 33.117001 196 175 154
179.000000 -244.000000 33.117001 189 168 149
180.000000 -244.000000 32.917500 187 166 149
181.000000 -244.000000 32.917500 186 167 150
182.000000 -244.000000 32.717999 174 155 141
183.000000 -244.000000 32.518497 54 38 23
184.000000 -244.000000 32.518497 35 23 9
185.000000 -244.000000 32.518497 42 33 18
186.000000 -244.000000 32.518497 38 32 18
187.000000 -244.000000 32.319000 32 29 14
188.000000 -244.000000 31.919998 36 33 18
189.000000 -244.000000 32.319000 38 35 20
191.000000 -244.000000 24.937500 45 39 23
192.000000 -244.000000 25.934999 53 45 26
193.000000 -244.000000 26.533499 54 43 23
194.000000 -244.000000 26.334000 62 51 31
202.000000 -244.000000 32.917500 62 51 33
203.000000 -244.000000 32.917500 63 52 34
204.000000 -244.000000 33.316498 61 53 34
205.000000 -244.000000 33.316498 59 51 32
206.000000 -244.000000 33.515999 57 49 30
207.000000 -244.000000 33.515999 57 49 30
208.000000 -244.000000 33.515999 56 49 31
216.000000 -244.000000 14.962500 37 40 29
217.000000 -244.000000 15.162000 34 40 28
218.000000 -244.000000 15.162000 39 42 31
219.000000 -244.000000 15.162000 36 39 28
220.000000 -244.000000 15.561000 39 42 31
221.000000 -244.000000 15.361500 36 39 28
222.000000 -244.000000 15.361500 37 40 29
223.000000 -244.000000 15.361500 33 36 25
224.000000 -244.000000 15.561000 33 36 25
225.000000 -244.000000 15.361500 29 35 23
226.000000 -244.000000 15.361500 31 37 27
227.000000 -244.000000 15.361500 34 40 30
228.000000 -244.000000 15.162000 34 39 32
229.000000 -244.000000 15.162000 37 42 35
230.000000 -244.000000 15.162000 37 42 35
231.000000 -244.000000 15.162000 32 38 28
232.000000 -244.000000 15.162000 32 38 28
233.000000 -244.000000 15.162000 33 39 27
234.000000 -244.000000 15.162000 38 44 32
235.000000 -244.000000 14.962500 31 37 27
236.000000 -244.000000 15.162000 12 17 10
237.000000 -244.000000 15.162000 5 10 4
238.000000 -244.000000 14.962500 8 13 9
239.000000 -244.000000 14.962500 7 11 10
240.000000 -244.000000 14.962500 6 12 10
241.000000 -244.000000 14.962500 5 11 9
242.000000 -244.000000 14.763000 8 14 12
243.000000 -244.000000 14.962500 4 10 8
244.000000 -244.000000 14.962500 9 15 13
245.000000 -244.000000 14.763000 6 12 10
246.000000 -244.000000 14.563499 4 10 8
247.000000 -244.000000 14.563499 6 12 10
248.000000 -244.000000 14.164499 6 12 10
249.000000 -244.000000 13.964999 6 12 10
250.000000 -244.000000 14.563499 6 12 10
251.000000 -244.000000 14.563499 6 12 10
256.000000 -244.000000 9.576000 7 13 11
257.000000 -244.000000 9.775499 5 11 9
269.000000 -244.000000 15.561000 4 10 8
270.000000 -244.000000 15.760500 8 14 12
271.000000 -244.000000 15.959999 8 14 12
272.000000 -244.000000 15.760500 8 14 12
273.000000 -244.000000 15.361500 7 13 11
274.000000 -244.000000 15.561000 5 11 9
275.000000 -244.000000 15.760500 4 10 8
276.000000 -244.000000 15.561000 4 10 8
277.000000 -244.000000 15.760500 4 10 8
278.000000 -244.000000 15.361500 4 10 8
279.000000 -244.000000 15.760500 4 10 8
280.000000 -244.000000 15.760500 7 13 11
281.000000 -244.000000 15.959999 5 11 9
282.000000 -244.000000 15.561000 8 14 12
283.000000 -244.000000 15.561000 4 10 8
284.000000 -244.000000 16.358999 7 13 11
285.000000 -244.000000 17.356499 4 10 8
286.000000 -244.000000 17.157000 7 13 11
287.000000 -244.000000 17.356499 6 12 10
288.000000 -244.000000 17.955000 5 11 9
289.000000 -244.000000 18.354000 4 10 8
291.000000 -244.000000 20.348999 4 10 8
292.000000 -244.000000 20.747999 1 10 7
293.000000 -244.000000 21.945000 1 10 7
294.000000 -244.000000 21.546000 3 12 9
295.000000 -244.000000 21.546000 5 14 11
296.000000 -244.000000 21.745499 11 17 13
297.000000 -244.000000 21.745499 8 15 8
298.000000 -244.000000 21.745499 11 16 10
299.000000 -244.000000 21.745499 14 20 10
300.000000 -244.000000 21.546000 29 30 22
301.000000 -244.000000 21.745499 27 29 18
302.000000 -244.000000 21.745499 29 29 17
303.000000 -244.000000 21.945000 28 28 16
304.000000 -244.000000 21.945000 30 31 17
305.000000 -244.000000 21.945000 29 30 16
306.000000 -244.000000 21.945000 31 32 18
307.000000 -244.000000 22.144499 28 29 15
308.000000 -244.000000 20.747999 32 33 19
309.000000 -244.000000 20.548500 29 30 16
311.000000 -244.000000 22.144499 30 31 17
312.000000 -244.000000 23.142000 34 35 21
313.000000 -244.000000 25.735498 32 33 19
314.000000 -244.000000 24.538500 36 34 21
315.000000 -244.000000 24.737999 32 30 17
316.000000 -244.000000 24.538500 34 32 19
317.000000 -244.000000 25.136999 33 31 18
318.000000 -244.000000 24.937500 36 34 21
319.000000 -244.000000 24.737999 29 31 18
320.000000 -244.000000 24.937500 17 25 14
321.000000 -244.000000 24.937500 17 25 14
322.000000 -244.000000 24.937500 54 56 45
323.000000 -244.000000 25.136999 61 59 46
324.000000 -244.000000 24.937500 55 54 36
325.000000 -244.000000 25.136999 54 53 32
326.000000 -244.000000 25.136999 65 60 38
327.000000 -244.000000 25.336500 83 76 50
328.000000 -244.000000 25.136999 92 77 54
329.000000 -244.000000 25.535999 95 77 53
330.000000 -244.000000 25.336500 98 82 56
331.000000 -244.000000 25.535999 98 84 57
332.000000 -244.000000 25.735498 94 82 56
333.000000 -244.000000 26.134499 95 83 57
334.000000 -244.000000 26.334000 97 81 56
335.000000 -244.000000 25.934999 92 76 51
336.000000 -244.000000 26.134499 90 74 51
337.000000 -244.000000 25.934999 90 76 50
338.000000 -244.000000 25.934999 88 77 49
339.000000 -244.000000 26.134499 86 75 45
340.000000 -244.000000 26.134499 87 74 42
341.000000 -244.000000 26.134499 92 78 49
342.000000 -244.000000 25.934999 96 80 54
343.000000 -244.000000 25.934999 93 77 52
344.000000 -244.000000 26.334000 97 80 54
345.000000 -244.000000 26.134499 95 78 52
346.000000 -244.000000 26.334000 96 81 52
347.000000 -244.000000 25.934999 95 81 52
348.000000 -244.000000 26.134499 94 82 56
349.000000 -244.000000 25.934999 91 83 62
350.000000 -244.000000 26.334000 80 72 59
351.000000 -244.000000 26.334000 26 23 16
352.000000 -244.000000 26.533499 11 17 13
353.000000 -244.000000 26.533499 10 22 20
354.000000 -244.000000 26.334000 10 22 20
355.000000 -244.000000 26.134499 9 21 19
356.000000 -244.000000 25.535999 10 22 20
357.000000 -244.000000 26.932499 10 22 20
368.000000 -244.000000 25.535999 10 22 22
369.000000 -244.000000 25.336500 9 21 21
370.000000 -244.000000 25.735498 11 23 23
371.000000 -244.000000 25.735498 8 20 20
372.000000 -244.000000 25.535999 11 23 21
373.000000 -244.000000 25.336500 8 20 18
374.000000 -244.000000 25.336500 8 23 20
375.000000 -244.000000 0.000000 7 22 19
376.000000 -244.000000 0.000000 8 23 20
22.000000 -245.000000 15.959999 8 17 14
23.000000 -245.000000 15.561000 4 13 10
24.000000 -245.000000 15.561000 4 13 10
25.000000 -245.000000 15.162000 2 11 8
26.000000 -245.000000 15.561000 6 12 10
27.000000 -245.000000 15.561000 3 9 7
28.000000 -245.000000 15.561000 7 13 11
29.000000 -245.000000 15.361500 4 10 8
30.000000 -245.000000 16.159500 6 12 10
31.000000 -245.000000 15.561000 4 10 8
32.000000 -245.000000 15.561000 6 12 10
33.000000 -245.000000 15.959999 6 12 10
35.000000 -245.000000 16.358999 6 12 10
36.000000 -245.000000 16.558500 6 12 10
37.000000 -245.000000 16.558500 6 12 10
38.000000 -245.000000 16.558500 6 12 10
39.000000 -245.000000 16.558500 6 12 10
40.000000 -245.000000 16.159500 7 13 11
41.000000 -245.000000 16.159500 7 13 11
42.000000 -245.000000 15.959999 6 12 10
43.000000 -245.000000 15.959999 6 12 10
44.000000 -245.000000 15.760500 6 12 10
45.000000 -245.000000 15.959999 6 12 10
46.000000 -245.000000 15.561000 7 13 11
47.000000 -245.000000 15.561000 7 13 11
48.000000 -245.000000 15.361500 13 19 17
49.000000 -245.000000 14.962500 11 17 15
50.000000 -245.000000 14.962500 15 21 17
51.000000 -245.000000 14.763000 14 20 16
52.000000 -245.000000 14.763000 18 24 20
53.000000 -245.000000 14.563499 18 24 20
54.000000 -245.000000 14.563499 18 24 20
55.000000 -245.000000 14.563499 9 15 11
56.000000 -245.000000 14.763000 7 13 9
57.000000 -245.000000 14.763000 6 12 8
58.000000 -245.000000 14.763000 8 14 10
59.000000 -245.000000 14.763000 4 10 6
60.000000 -245.000000 14.563499 8 14 12
61.000000 -245.000000 14.563499 7 13 11
62.000000 -245.000000 14.563499 9 15 13
63.000000 -245.000000 14.763000 7 13 11
64.000000 -245.000000 15.361500 6 12 10
65.000000 -245.000000 17.157000 6 12 10
66.000000 -245.000000 17.755499 6 12 10
67.000000 -245.000000 18.553499 6 12 10
68.000000 -245.000000 19.152000 6 12 10
69.000000 -245.000000 19.550999 6 12 10
70.000000 -245.000000 19.550999 4 13 12
71.000000 -245.000000 19.550999 4 13 12
72.000000 -245.000000 19.750500 7 16 15
73.000000 -245.000000 19.750500 7 16 15
74.000000 -245.000000 19.750500 11 20 19
75.000000 -245.000000 19.750500 13 22 21
80.000000 -245.000000 32.917500 9 18 15
81.000000 -245.000000 32.917500 5 14 11
82.000000 -245.000000 32.717999 7 13 9
83.000000 -245.000000 32.518497 10 15 9
84.000000 -245.000000 32.319000 10 11 3
85.000000 -245.000000 32.319000 9 9 0
86.000000 -245.000000 32.319000 29 27 15
87.000000 -245.000000 32.319000 57 54 39
88.000000 -245.000000 32.518497 66 59 43
89.000000 -245.000000 32.717999 63 54 37
90.000000 -245.000000 32.518497 66 57 40
91.000000 -245.000000 32.717999 68 57 39
92.000000 -245.000000 32.518497 71 60 42
93.000000 -245.000000 32.717999 65 54 36
94.000000 -245.000000 32.518497 65 54 36
95.000000 -245.000000 32.518497 63 52 34
96.000000 -245.000000 32.917500 66 53 34
100.000000 -245.000000 15.361500 64 51 32
101.000000 -245.000000 15.361500 64 51 32
102.000000 -245.000000 15.162000 63 50 31
103.000000 -245.000000 15.361500 63 50 31
104.000000 -245.000000 15.361500 63 50 31
105.000000 -245.000000 15.361500 62 49 30
106.000000 -245.000000 15.162000 65 52 33
107.000000 -245.000000 15.162000 62 49 30
109.000000 -245.000000 15.361500 62 49 30
121.000000 -245.000000 37.106998 61 50 32
122.000000 -245.000000 37.904999 63 51 35
125.000000 -245.000000 34.313999 70 60 48
126.000000 -245.000000 34.114498 78 70 57
127.000000 -245.000000 35.710499 77 71 57
128.000000 -245.000000 35.510998 79 73 61
129.000000 -245.000000 35.112000 75 71 59
130.000000 -245.000000 34.712997 72 68 57
131.000000 -245.000000 34.114498 72 68 59
132.000000 -245.000000 33.515999 101 98 89
133.000000 -245.000000 33.715500 217 214 205
134.000000 -245.000000 33.715500 232 229 220
135.000000 -245.000000 33.715500 237 237 225
136.000000 -245.000000 33.515999 237 238 224
137.000000 -245.000000 33.715500 239 240 226
138.000000 -245.000000 33.915001 241 242 226
139.000000 -245.000000 34.313999 241 243 229
140.000000 -245.000000 34.513500 242 244 230
141.000000 -245.000000 34.313999 243 245 232
142.000000 -245.000000 33.915001 242 244 233
143.000000 -245.000000 33.515999 243 243 233
144.000000 -245.000000 33.316498 245 243 231
145.000000 -245.000000 33.515999 245 241 230
146.000000 -245.000000 33.515999 246 242 233
147.000000 -245.000000 33.715500 247 244 235
148.000000 -245.000000 33.715500 248 245 238
149.000000 -245.000000 33.715500 247 247 239
150.000000 -245.000000 33.515999 247 246 241
151.000000 -245.000000 33.715500 249 248 243
152.000000 -245.000000 33.515999 250 249 245
153.000000 -245.000000 33.117001 250 251 246
154.000000 -245.000000 32.917500 250 251 245
155.000000 -245.000000 33.117001 250 251 245
156.000000 -245.000000 33.316498 251 252 244
157.000000 -245.000000 33.515999 251 252 244
158.000000 -245.000000 34.114498 251 252 244
159.000000 -245.000000 33.715500 251 252 246
160.000000 -245.000000 33.715500 251 253 250
161.000000 -245.000000 34.313999 251 253 252
162.000000 -245.000000 34.114498 253 253 251
163.000000 -245.000000 34.114498 254 253 249
164.000000 -245.000000 33.715500 255 251 245
165.000000 -245.000000 33.915001 255 250 242
166.000000 -245.000000 33.515999 255 254 243
167.000000 -245.000000 33.915001 237 228 213
168.000000 -245.000000 33.915001 196 183 167
169.000000 -245.000000 33.715500 196 183 164
170.000000 -245.000000 33.715500 194 179 160
171.000000 -245.000000 33.715500 190 175 154
172.000000 -245.000000 33.715500 193 178 155
173.000000 -245.000000 33.715500 195 180 157
174.000000 -245.000000 33.715500 192 180 156
175.000000 -245.000000 33.715500 195 180 157
176.000000 -245.000000 33.515999 198 182 157
177.000000 -245.000000 33.316498 193 175 151
178.000000 -245.000000 33.515999 196 175 154
179.000000 -245.000000 33.515999 193 172 153
180.000000 -245.000000 33.316498 191 170 151
181.000000 -245.000000 33.316498 190 169 152
182.000000 -245.000000 33.117001 172 153 138
183.000000 -245.000000 32.917500 67 51 36
184.000000 -245.000000 32.917500 33 21 5
185.000000 -245.000000 32.717999 42 33 18
186.000000 -245.000000 32.917500 38 32 16
187.000000 -245.000000 32.717999 35 32 17
188.000000 -245.000000 32.518497 41 38 23
189.000000 -245.000000 32.917500 46 43 28
202.000000 -245.000000 33.316498 67 54 37
203.000000 -245.000000 33.117001 66 55 35
204.000000 -245.000000 33.515999 65 54 34
205.000000 -245.000000 33.515999 64 53 33
206.000000 -245.000000 33.515999 62 51 31
207.000000 -245.000000 33.515999 60 52 33
208.000000 -245.000000 33.515999 55 47 28
209.000000 -245.000000 33.316498 56 49 31
210.000000 -245.000000 33.117001 58 51 33
211.000000 -245.000000 33.316498 37 34 17
217.000000 -245.000000 15.162000 21 29 16
218.000000 -245.000000 15.361500 25 31 19
219.000000 -245.000000 15.361500 24 30 18
220.000000 -245.000000 15.760500 26 32 22
221.000000 -245.000000 15.561000 23 26 15
222.000000 -245.000000 15.561000 24 27 16
223.000000 -245.000000 15.561000 23 26 15
224.000000 -245.000000 15.561000 24 30 18
225.000000 -245.000000 15.561000 19 25 15
226.000000 -245.000000 15.361500 18 24 14
227.000000 -245.000000 15.561000 17 22 15
228.000000 -245.000000 15.162000 15 20 13
229.000000 -245.000000 15.162000 22 27 20
230.000000 -245.000000 15.162000 26 31 24
231.000000 -245.000000 15.162000 21 27 17
232.000000 -245.000000 15.162000 20 26 14
233.000000 -245.000000 15.162000 30 36 24
234.000000 -245.000000 15.162000 48 54 42
235.000000 -245.000000 14.962500 44 50 38
236.000000 -245.000000 14.962500 13 18 11
237.000000 -245.000000 14.962500 0 5 0
238.000000 -245.000000 14.962500 7 12 8
239.000000 -245.000000 14.763000 8 13 9
240.000000 -245.000000 14.763000 9 15 13
241.000000 -245.000000 14.763000 7 13 11
242.000000 -245.000000 14.563499 9 15 13
243.000000 -245.000000 14.763000 5 11 9
